# .PCD v0.7 - Point Cloud Data file format
VERSION 0.7
FIELDS x y z intensity
SIZE 4 4 4 4
TYPE F F F F
COUNT 1 1 1 1
WIDTH 1208
HEIGHT 1
VIEWPOINT 0 0 0 1 0 0 0
POINTS 1208
DATA ascii
-1.4913937 2.9385271 -3.7821684 5
-1.5615538 3.0327108 -3.6829333 5.1999998
-1.6159096 3.1051216 -3.5914998 4.5999999
-1.6828656 3.1976154 -3.489239 4.75
-1.7152863 3.2282512 -3.327517 3.2222223
-1.7519927 3.2723114 -3.202884 1.6666666
-1.7971934 3.3550227 -3.2709267 3.3333333
-1.8329161 3.4015272 -3.1663904 1.875
-1.345476 3.331362 1.7113134 8
-1.8989269 3.5003679 -3.0655766 2
-1.9524083 3.5770645 -2.9329736 2
-1.4310515 3.505496 1.7350998 7
-1.9936541 3.6374757 -2.8267083 2.8333333
-2.0344546 3.6965778 -2.6906345 6.75
-2.0653954 3.7408109 -2.5593319 7.75
-1.5197805 3.6848857 1.7557639 7
-2.0926187 3.7826979 -2.4669847 9.5555553
-2.1335123 3.8457532 -2.2840855 10.857142
-1.6724588 3.9140463 1.596634 6
-1.7031912 3.8449588 1.7109519 12.242857
-2.1711943 3.9084895 -2.1795194 12
-2.1913452 3.9417584 -2.0664837 12.153846
-2.2276821 4.0048361 -1.8594728 10.692307
-2.2448885 4.0368443 -1.7069299 9
-1.7816303 3.9538889 1.6151671 6.125
-2.2570515 4.0603013 -1.6297168 9.25
-2.2752714 4.0989332 -1.4518735 12.076923
-2.2889278 4.1339531 -1.2459245 10.5
-2.2975934 4.1634579 -1.0481815 9.75
-2.2993073 4.1816249 -0.87473261 10
-2.2877955 4.1786194 -0.69834512 59
-2.1353939 4.1645312 0.74331903 29
-2.1078756 4.1734681 0.96283662 46.625
-2.0848856 4.1760831 1.117883 24.888889
-2.0441546 4.1691709 1.3376431 12.5
-2.005918 4.164197 1.5354136 14
-1.9581301 4.1132679 1.6405897 9.666667
-2.3003361 4.1925163 -0.78416204 8
-2.290956 4.1912556 -0.64071614 55.700001
-2.2804105 4.1956968 -0.45333004 52.5
-2.2651443 4.1975536 -0.24913706 51.076923
-2.2486224 4.200995 -0.046629708 50
-2.2263913 4.1978521 0.1547159 34.846153
-2.200079 4.1908822 0.35424244 45.25
-2.1715462 4.1821351 0.54603976 47.25
-2.1447313 4.1801724 0.73658329 54.099998
-2.1208289 4.1802254 0.90162283 52
-2.0777013 4.1941524 1.2214178 13.333333
2.8702853 -2.144479 -1.55539 66
2.8906739 -2.1598613 -1.4233201 60.285713
2.9670167 -2.1306465 -1.2111976 52.533333
2.9920993 -2.1453617 -1.0424426 49.299999
3.0197856 -2.1587949 -0.84590214 45.635895
3.049489 -2.1702211 -0.64447021 51.84375
3.0808492 -2.1797044 -0.44696206 49.943748
3.115365 -2.1883318 -0.25134632 48.775002
3.1498382 -2.1955941 -0.071784273 40.777779
3.1521931 -2.2566173 0.14318816 28.6
3.1805975 -2.2527721 0.33734185 12.714286
3.213649 -2.2472274 0.54744869 12.857142
3.1759238 -2.2018425 0.6663273 10.6
2.6797504 -1.9733894 -2.3220761 3
2.705477 -1.9992005 -2.2154324 4.4666667
2.759666 -2.0497875 -2.0233688 4.0666666
2.8079224 -2.0927896 -1.8339095 15.928572
2.8461561 -2.1253805 -1.6453474 57.23077
2.8701565 -2.144671 -1.4889557 24
3.0795119 -2.0454111 0.69240159 8.7999992
2.5185947 -1.816751 -2.7155397 2.3333333
2.5634351 -1.8622547 -2.5984478 2.0666666
2.6345646 -1.9315233 -2.4214439 1.5384616
2.9811599 -1.9610834 0.78311074 11.436813
2.9645109 -1.9260041 0.9146595 13.777778
2.3068137 -1.7016985 -3.0879097 7
2.3443172 -1.7406762 -3.0119123 6.147059
2.4819055 -1.7793574 -2.8010075 2
2.8306713 -1.748214 0.95697385 11.125
2.1782429 -1.5672388 -3.317488 9.0952377
2.2550368 -1.6490618 -3.1711822 6.75
2.6691158 -1.6317987 0.98443103 8.2857141
2.0469394 -1.42676 -3.5300763 5.4258242
2.1233115 -1.5111333 -3.3880119 7.4388885
2.5465608 -1.5436842 1.002005 15.4
1.9105065 -1.2779348 -3.7284195 5.5317459
1.982354 -1.357603 -3.6190019 4.5833335
1.772639 -1.1296681 -3.8786292 3.8357143
1.8374715 -1.1986759 -3.8178568 4.5
1.5522761 -1.0034187 -4.049284 6.8000002
1.6268555 -0.98765522 -3.9058893 4.0673075
1.3909664 -0.82294536 -4.208674 8.6000004
1.4743923 -0.80777991 -4.1226249 4.909091
1.545184 -0.89766645 -3.9838953 3.5
1.2916389 -0.71347058 -4.2763762 11.181818
1.330161 -0.76716328 -4.1702561 4
1.1363105 -0.5373435 -4.3949738 14.454545
1.2068533 -0.61730838 -4.3454666 13
1.0150909 -0.39943671 -4.470984 16.357143
0.86741048 -0.22983751 -4.5538087 15.9
0.93092597 -0.30366582 -4.5157027 16
0.7517767 -0.096474752 -4.6062894 16.153847
0.6179598 0.058011897 -4.6522446 14.076923
0.46947369 0.23117214 -4.6946368 15.1
0.52792734 0.16234134 -4.6767888 14.666667
0.35179639 0.36819947 -4.7123985 13.416667
0.24120092 0.49864715 -4.7281423 10.333333
0.055991892 0.71930826 -4.7426858 9.166667
-0.039474413 0.83315098 -4.7379723 10.25
-0.11029155 0.85917068 -4.3771119 7
-0.14816004 0.95150626 -4.655448 6
-0.16931657 0.95997804 -4.5492487 6.5999999
-0.15922514 0.91783953 -4.3697925 6.6666665
-0.1132844 1.017301 -3.9405632 4.2857141
-0.36762461 1.1253083 -4.0505476 5
-0.20130911 1.1281298 -3.935133 4.6923075
-0.42677367 1.2448486 -4.3236313 6.5
-0.36326045 1.2421453 -4.0543985 4.5
-0.31441671 1.2670512 -3.9013743 4
-0.57509565 1.4841485 -4.6274967 9.666667
-0.4978621 1.3368331 -4.3300614 6.5
-0.66760689 1.5986427 -4.5908122 8.416667
-0.75405306 1.7063938 -4.5538187 8.1999998
-0.81354243 1.7797147 -4.5174065 8.7142859
-0.90787375 1.8983048 -4.4655552 8.25
-1.0290037 2.0504911 -4.3817921 8.3846149
-1.1099519 2.1534746 -4.3240142 8
-1.1712819 2.2315907 -4.2732868 8.5555553
-1.2727814 2.362371 -4.1868477 8.6153851
-1.3633822 2.4799647 -4.1020975 8.5714283
-1.4195052 2.5527046 -4.0403872 7.8333335
-1.5017523 2.6610346 -3.950603 9.2307692
-0.96473831 2.5756235 1.6271605 6.125
-1.574146 2.7571018 -3.8665338 9.75
-1.6305376 2.8321836 -3.7923286 9.6000004
-1.0529206 2.7484105 1.6454412 6.1428571
-1.7008358 2.9262545 -3.6919057 10.25
-1.7522197 2.9936323 -3.5933897 8.8571424
-1.2133913 2.9288862 1.6795883 5.979167
-1.8256664 3.0954235 -3.4897904 8.333333
-1.8552567 3.1232352 -3.2849591 5.8571429
-1.8884336 3.167413 -3.1962037 5
-1.2995334 3.0948679 1.6976697 6.25
-1.927466 3.2340348 -3.2754128 6
-1.9664516 3.2869594 -3.1720974 6.2857141
-1.4363166 3.2093158 1.7230411 7.4000001
-2.0385439 3.3930781 -3.0685117 5.4545455
-2.0893173 3.4659889 -2.9423916 6.1428571
-1.5309051 3.3850551 1.7445471 7.5999999
-2.1304128 3.5261369 -2.8356836 5.5
-2.1792274 3.598114 -2.6761658 9.4615383
-2.2061589 3.6375155 -2.546195 12
-1.6958026 3.5343618 1.77473 7.6999998
-2.210516 3.6458132 -2.5926375 11
-2.2321489 3.6781256 -2.4759803 15.888889
-2.2745605 3.7448306 -2.2899928 16.90909
-1.9320633 3.7307632 1.6231302 11
-1.8923938 3.6999807 1.7354504 19.666666
-2.307456 3.7984464 -2.175951 23.25
-2.3311672 3.8385251 -2.0478506 21.25
-2.3674622 3.9025142 -1.8495727 21.23077
-1.9728571 3.8009465 1.6295098 9
-2.0224457 3.8878295 1.642224 10
-2.3959701 3.9569762 -1.6475965 17.5
-2.4155738 4.0001249 -1.441584 26.076923
-2.4306548 4.0389924 -1.2360202 23.5
-2.4356654 4.0636649 -1.0360357 22.416666
-2.4366579 4.0752592 -0.92801368 26
-2.2531626 4.0590334 0.84085172 101
-2.2429371 4.0612249 0.92118627 101
-2.1732795 4.0678391 1.3912386 29.571428
-2.1374321 4.056778 1.5616965 29.76923
-2.0679524 3.9665473 1.6504052 14.5
-2.4370921 4.0854177 -0.83562541 23.700001
-2.4261088 4.0889606 -0.63685536 101.33334
-2.4151535 4.095511 -0.43914804 103.33334
-2.4001553 4.099328 -0.23459463 101.23077
-2.3792014 4.0960445 -0.031329338 99.416664
-2.3590219 4.0957632 0.16236307 86.25
-2.3304849 4.0854392 0.36194146 73.153847
-2.3024354 4.0794673 0.56240118 84.833336
-2.2748482 4.0737615 0.74620211 85.181816
-2.2440953 4.0728631 0.95927614 93.416664
-2.2181137 4.0811758 1.1627998 42.166668
-2.1931148 4.0793214 1.3124006 30.799999
2.6665549 -2.3293469 -1.5748161 67.888885
2.7421694 -2.3004065 -1.4155896 58.900002
2.820344 -2.2719553 -1.2233363 47.933334
2.849093 -2.2874155 -1.0268115 40.466667
2.8747654 -2.2976511 -0.82489043 46.400002
2.9059882 -2.3100033 -0.63047111 43.875
2.9401524 -2.3215857 -0.42963985 42.625
2.9739802 -2.3306186 -0.23316951 42.866665
3.0118427 -2.3406687 -0.04109396 37.799999
3.0120192 -2.4026887 0.16698109 27.451515
3.0385091 -2.3993292 0.36138332 16.574177
3.0640504 -2.3920078 0.56393433 15.125
3.0249481 -2.3435636 0.68060631 10.25
2.5173244 -2.1134276 -2.3355761 10.583334
2.5568151 -2.1495881 -2.2012036 9.333333
2.6151614 -2.2009997 -2.0103951 7.8000002
2.6624537 -2.2407138 -1.8153547 23.542858
2.6936579 -2.2650604 -1.641082 58.416664
2.7618589 -2.2318492 -1.5185618 58
2.9268801 -2.1768382 0.70147526 7
2.3606586 -1.9642698 -2.7450404 9.1785717
2.4188921 -2.0208545 -2.5916924 9.2660255
2.4826066 -2.0816293 -2.4152589 10.307142
2.851321 -2.1027865 0.79370248 11.571428
2.8262265 -1.978366 0.94174278 13.272728
2.1440625 -1.8515638 -3.0938873 10.166667
2.2605357 -1.8647889 -2.9656963 9.90625
2.3173263 -1.9218128 -2.8379357 9.6805553
2.6979852 -1.8739135 0.97356188 9.354167
2.0021632 -1.7084374 -3.3199322 9.333333
2.0978861 -1.7053251 -3.1865225 9.1923075
2.5428665 -1.7511317 0.9971565 9.8571434
1.8306296 -1.5268953 -3.631484 5.5
1.892596 -1.5926708 -3.5284116 5.5625
2.0143707 -1.619254 -3.3290181 17.200001
2.4390471 -1.5319515 1.018478 12.65
1.6829568 -1.3699389 -3.8276451 5.5
1.7556725 -1.4479104 -3.7266603 4.4705882
2.2982256 -1.4257166 1.0395685 7.6111112
1.5953915 -1.2793149 -3.8853121 6.3333335
2.1536589 -1.3164407 1.0619663 6.9375
1.4300874 -1.0994123 -4.0706844 6
1.4503855 -1.1312952 -3.9327321 3.5999999
2.0024083 -1.1454962 1.0810146 5.9166665
1.2882822 -0.94416624 -4.2004085 6
1.3556696 -1.020478 -4.1140451 5.375
1.8543106 -1.0342994 1.1033815 6.3333335
1.1751591 -0.81938827 -4.2891293 7.5
1.0382719 -0.66564304 -4.4017644 9.333333
0.90299881 -0.51443464 -4.4794788 9.818182
0.7507574 -0.3430945 -4.5516682 8.272727
0.82150948 -0.42291737 -4.5205379 10
0.62771159 -0.20377252 -4.5974097 8.5384617
0.4431473 0.010172975 -4.6810598 11
0.49810645 -0.054686751 -4.6490517 9.416667
0.35310543 0.11366137 -4.6985488 10.166667
0.42100754 0.034379862 -4.6749558 10
0.22649661 0.26104656 -4.7262106 8.166667
0.1148554 0.39172706 -4.7429404 7
-0.067233779 0.60598761 -4.7509799 7
-0.16319358 0.71907651 -4.7412214 7.7692308
-0.2700012 0.83633554 -4.6415253 3
-0.28690362 0.84002918 -4.4882135 3.8571429
-0.28097248 0.82231557 -4.3928733 7
-0.27621403 0.88001829 -3.9498959 6.1309524
-0.33201742 1.0740708 -4.0124774 4
-0.3595683 0.98190987 -3.9395568 6.7222223
-0.55844712 1.1209358 -3.9879873 1
-0.46754882 1.1148816 -3.9186866 5.5
-0.7042985 1.3727208 -4.6380582 7
-0.65291095 1.2946023 -4.510694 2
-0.61961979 1.2360313 -4.3516269 3
-0.79228884 1.4807703 -4.6026716 7.25
-0.98880333 1.588094 -4.5592079 5
-1.0689033 1.6881649 -4.523603 5.1666665
-1.1198885 1.7503277 -4.4740806 5.25
-0.52705318 1.7301327 1.5159949 7
-1.2282511 1.8864558 -4.4104443 5.416667
-0.59013087 1.8492526 1.5327702 3.1666667
-1.3475449 2.0370297 -4.323298 6.136364
-1.3407972 2.1680427 -4.2618089 6
-0.73872519 2.0317411 1.566365 3.8333333
-1.4814399 2.0675304 -4.290772 6
-1.4704543 2.1937196 -4.2216558 5.155303
-0.82126856 2.1866598 1.5864837 5.227273
-1.5777922 2.3318536 -4.1193476 5.181818
-1.5652343 2.4570687 -4.0414095 6.3333335
-0.91523522 2.3626423 1.6096147 5.7777777
-1.7287375 2.3851707 -4.0462074 3.75
-1.7114308 2.5055945 -3.9745047 5.1461535
-1.1100571 2.4926441 1.6450375 5.5625
-1.8004706 2.6229849 -3.8703425 5.0779219
-1.853497 2.6928325 -3.7848327 5.25
-1.1960424 2.6454403 1.6656429 5.7857141
-1.9274591 2.7917728 -3.6804144 4.909091
-1.908047 2.9122362 -3.5941706 6.6666665
-1.2844388 2.8001108 1.6836348 5.6785717
-2.0762994 2.8463235 -3.5900321 6
-2.0388076 2.9427967 -3.50769 4.9294872
-2.0633986 2.9736516 -3.3253009 2.75
-1.4440728 2.9507394 1.7091424 5
-2.1460512 3.0904336 -3.2565904 3.4375
-2.1091826 3.1882558 -3.1769547 2.3333333
-1.6042567 3.0893264 1.7344227 7.083333
-2.2945971 3.1487589 -3.187618 1
-2.2604916 3.2528317 -3.0748003 5.0757575
-2.2346635 3.3691525 -2.9419053 3
-1.702002 3.2523267 1.7554978 8.1999998
-2.392787 3.2893894 -2.9842663 1.5
-2.3505294 3.3839335 -2.8490212 4.7440476
-2.3935783 3.4487696 -2.6965859 3.5625
-1.8606402 3.3723986 1.7857636 7.25
-2.421629 3.4916384 -2.6009848 5.75
-2.45438 3.5438654 -2.4441607 10.777778
-2.4859965 3.5950222 -2.2999747 11
-1.9818269 3.5598741 1.7874171 9
-2.5176105 3.6460018 -2.1969926 12.8
-2.5504484 3.7023747 -2.0300398 16.912088
-2.5803223 3.7553141 -1.8736447 17.888889
-2.1158099 3.7282324 1.6433501 7
-2.0472386 3.6414332 1.7160563 13.222222
-2.5269363 3.8373046 -1.7552714 11.25
-2.5342286 3.8561041 -1.6276999 11.454545
-2.5557361 3.9029951 -1.4311724 16.76923
-2.5667326 3.9367671 -1.2231005 13.25
-2.5696838 3.9559739 -1.0615952 12
-2.2732973 3.9600928 1.5914282 16.571428
-2.2109699 3.880775 1.6602297 9
-2.5772729 3.9778919 -0.96077216 15
-2.5759494 3.9911804 -0.81631857 20.454546
-2.5676873 4.0014744 -0.61619872 55.76923
-2.554584 4.007452 -0.40899178 62.416668
-2.5385449 4.0099621 -0.21177289 63.166668
-2.5188005 4.0088453 -0.015675234 64
-2.4979043 4.0081224 0.17906611 57.416668
-2.4708259 4.0011706 0.37998301 58.23077
-2.4391334 3.9894896 0.58098841 76.666664
-2.4126589 3.9871252 0.77435654 60.333332
-2.3845091 3.9849203 0.96958238 59.083332
-2.3597534 3.9913244 1.168403 31.5
-2.3224413 3.9796855 1.3642341 15.75
-2.2897255 3.9735703 1.5442644 18.333334
2.8930793 -2.5615969 0.22172035 14.333333
2.9041584 -2.5585241 0.32446721 13
2.5439155 -2.408402 -1.7511176 45.333332
2.5713229 -2.4265177 -1.5937462 59.599998
2.6083262 -2.4501574 -1.3960655 44
2.6883228 -2.4216201 -1.2079926 53.141666
2.7167833 -2.434762 -1.009384 55.423813
2.7487853 -2.4492288 -0.81344622 58.668751
2.7790136 -2.4601181 -0.61718321 58.224998
2.8101528 -2.4696178 -0.4174166 56.15625
2.8449314 -2.4803469 -0.21968234 42.23333
2.8782995 -2.4886243 -0.028283758 53.028572
2.9086401 -2.4961846 0.13370468 41.045456
2.9023743 -2.5495622 0.3805241 12.857142
2.9227259 -2.5408802 0.57912701 12.4
2.8984344 -2.4124498 0.69513661 9.8000002
2.3721514 -2.2671771 -2.357836 11.272727
2.4241829 -2.3119652 -2.1841142 9.8000002
2.4781959 -2.3564727 -1.9871793 10.466666
2.5235796 -2.3917162 -1.8016137 32
2.7554989 -2.2757175 0.77177477 10.516807
2.6962903 -2.2851818 0.92975688 13.333333
2.2105055 -2.1189382 -2.7455733 12.416667
2.2851832 -2.1885564 -2.5818064 11.2
2.3334844 -2.2324429 -2.4479241 10.4
2.7080078 -2.2346444 0.77251351 12.333334
2.673192 -2.1756482 0.95255113 11.457143
2.0451598 -1.9594425 -3.1118796 10
2.1147645 -2.027416 -2.959306 10.4
2.1733212 -2.0837586 -2.832761 11
2.5099244 -2.0270579 0.98925567 9.3125
1.8587759 -1.772893 -3.433475 9
1.9007487 -1.815788 -3.3378181 8.8461542
1.9757161 -1.8910472 -3.2022021 19
2.4052913 -1.8572625 1.009611 10
1.7161754 -1.626466 -3.6476984 6.5
1.7869309 -1.6995983 -3.5333505 5.1666665
2.2970529 -1.6917335 1.0286285 10.744445
1.577659 -1.4816982 -3.8337965 3.5
1.6512928 -1.5590544 -3.7306571 3.8571429
2.1357191 -1.5541521 1.0522425 6.7222223
1.4849776 -1.3850425 -3.9044867 3.4615386
2.0039198 -1.3794324 1.0763528 6.4666667
1.2971706 -1.1842613 -4.1034703 4.3333335
1.3387414 -1.2341318 -3.9259367 3
1.8928062 -1.2864621 1.0941143 5.0982909
1.1766032 -1.0543909 -4.2006249 4.2727275
1.2494841 -1.1337217 -4.1273379 2.75
1.7579253 -1.0659558 1.1128334 6.355556
0.99997282 -0.86088151 -4.3509717 9
1.068495 -0.9366563 -4.2854223 6.8333335
1.6234442 -0.95562059 1.1343217 6.4705882
0.83307695 -0.7956807 -4.4344435 7.7857141
1.4912455 -0.80108696 1.1535132 7.6052628
0.6825372 -0.62859285 -4.532124 6.0444441
0.75163847 -0.7055673 -4.4811425 8
1.3410299 -0.6781078 1.1755886 8.1904764
0.57963634 -0.51417017 -4.5792856 7.0416665
1.2072356 -0.56680149 1.1933845 8.9370365
0.32594597 -0.35199779 -4.6855049 4
0.45097598 -0.36973211 -4.6370926 7.166667
1.0611771 -0.40159294 1.2128541 9.666667
0.28898647 -0.1867775 -4.6887074 6.8015871
0.35017189 -0.25632173 -4.6589112 6.5
0.96065277 -0.32918915 1.1868522 4.5
0.1723675 -0.054041829 -4.7156577 7.5769234
0.038225222 0.099761248 -4.7382321 7.291667
-0.075006522 0.23071107 -4.7543402 6.8888888
-0.2599048 0.44607133 -4.7707582 6.1999998
-0.41788456 0.50195092 -4.7854495 6.5
-0.34955978 0.5512917 -4.7685213 6.9363637
-0.34668776 0.66142184 -4.4680233 1
-0.47108886 0.69170707 -4.6598024 3.5
-0.44445905 0.65329891 -4.4876566 3.5
-0.43731657 0.74350202 -3.9876907 3.5
-0.44901404 0.75660956 -3.9696653 4
0.075542122 0.70403445 1.3801285 9.6000004
-0.52645504 0.85288996 -4.0165925 2.6666667
-0.52805227 0.8518616 -3.9600391 7.1666665
0.011049782 0.80036265 1.3902466 8.363636
-0.67693764 1.0561472 -4.3944521 1
-0.65319675 1.0224845 -4.3049459 6
-0.67112231 1.032855 -4.0800867 2.6666667
-0.65100634 0.99998361 -3.9204373 3
-0.084286958 0.95047373 1.4095829 7
-0.10521808 0.9908762 1.4251134 7
-0.89607495 1.2026722 -4.6293983 4.1750002
-0.73846698 1.1280053 -4.3226218 7
-0.17711389 1.1025615 1.4279439 6.5
-0.22025546 1.1193308 1.4481193 7.7272725
-0.9868651 1.3137159 -4.6189942 4.333333
-0.32481271 1.2948664 1.471302 7.7262845
-1.1043577 1.4573295 -4.5576591 4.2857141
-0.46381643 1.458581 1.497331 7.1936021
-1.2832497 1.5415862 -4.5071979 5.1111112
-1.2527639 1.6403474 -4.4713955 3.6666667
-0.55196142 1.6084917 1.5151033 7.1527781
-1.3581996 1.7715385 -4.3970656 4.5384617
-0.69030476 1.764329 1.5442026 3.8406591
-1.5495193 1.8735157 -4.322948 5.0769229
-0.82480401 1.9035578 1.5706233 2.9305556
-1.631531 1.9770194 -4.259109 4.75
-1.6874393 2.0481205 -4.2076449 4.875
-0.96834445 2.0495148 1.6000476 4.2272725
-1.785108 2.173053 -4.1185632 4.3076925
-1.0770231 2.226326 1.6261498 5.1111107
-1.8652145 2.2760923 -4.0472207 5
-1.9187481 2.345926 -3.9765613 4.1111112
-1.1689004 2.375942 1.6466165 4.6805553
-2.0123892 2.4686966 -3.8615568 4.3076925
-2.0701802 2.5449545 -3.7891562 5
-1.3850197 2.5075097 1.6839736 3.7678571
-2.1276598 2.6219745 -3.6979485 3.2142856
-1.4819121 2.6553297 1.7017927 4.2142859
-2.2012115 2.7204764 -3.5984273 5
-2.2479339 2.7846074 -3.5063434 3.7
-2.1815219 2.8465793 -3.2981257 2.3666668
-1.5957444 2.8297992 1.7251939 4.75
-2.2388349 2.9255602 -3.2166851 2
-2.2668798 2.9654078 -3.1563368 1.5
-1.6912848 2.974987 1.7431695 5.666667
-2.4288914 3.0356579 -3.1741519 2.5
-2.4240775 3.0367825 -3.0265822 70.625
-2.4709539 3.1079922 -2.8540883 119.3
-1.8684177 3.1184659 1.7725493 8.25
-2.5597529 3.2314799 -2.7542388 4
-2.6014175 3.2902861 -2.6981347 2.3333333
-1.9773551 3.2805862 1.7954606 7.5999999
-2.6249704 3.3283973 -2.5934114 5.0999999
-2.5841541 3.4298587 -2.3896437 34.977272
-2.7011697 3.4509442 -2.2972372 9
-2.0961277 3.4551938 1.8105645 8.6000004
-2.7245526 3.4900851 -2.1954832 8.909091
-2.6877248 3.5997705 -2.0059254 14.923077
-2.7152092 3.6480772 -1.8745804 13.083334
-2.2398903 3.6255324 1.6520398 5.3333335
-2.1770971 3.5532794 1.7315825 11.454545
-2.7310009 3.6781301 -1.7730002 8.9220772
-2.750473 3.7197461 -1.6039947 9.412879
-2.7679307 3.7630794 -1.3999615 15.346153
-2.7798979 3.7959616 -1.2344499 11.455555
-2.4133213 3.7340453 1.6693355 8.3999996
-2.3466802 3.7853599 1.6741307 9
-2.7847583 3.8133295 -1.1338036 12.833334
-2.7862675 3.8310525 -0.99100775 15.041666
-2.7816582 3.847482 -0.78909332 29.083332
-2.7698669 3.8553972 -0.58731365 49.875
-2.7589641 3.8658097 -0.38804868 56.916664
-2.7415493 3.868329 -0.18975277 59.416668
-2.7202926 3.8667526 0.0075013689 59.166664
-2.6980846 3.8650732 0.20324583 54.75
-2.6712768 3.8580842 0.39694673 57.416664
-2.6423872 3.8512194 0.59958684 54.923077
-2.6142104 3.8468883 0.8022536 50.25
-2.5862324 3.8433259 0.99851513 53.5
-2.5602388 3.8445089 1.1974367 28.5
-2.5245123 3.8332996 1.3948262 13.541667
-2.4902654 3.8235164 1.5820576 13.704546
2.7375083 -2.6955495 0.20611928 16.5
2.8286238 -2.6492574 0.51805699 12.5
2.3887243 -2.5434315 -1.754194 16.75
2.4178748 -2.5589085 -1.5729896 52.067307
2.4567032 -2.5833659 -1.3952605 51.361538
2.5406315 -2.5549791 -1.1819476 53.785713
2.5695775 -2.5672882 -0.99393195 53.266666
2.6017096 -2.5805418 -0.79545385 54.4375
2.6312888 -2.5902228 -0.59881496 52
2.6634254 -2.60109 -0.40248391 47.1875
2.6964102 -2.6115167 -0.20633537 52.07143
2.7330647 -2.6239526 -0.0082156043 49.727272
2.724838 -2.6831267 0.20563269 21.15873
2.7487736 -2.6828086 0.39242718 13.2
2.7702777 -2.6759751 0.60422105 12.024038
2.7626071 -2.5604775 0.70152104 7.75
2.2115293 -2.404022 -2.3323648 8.7363634
2.2655461 -2.4483562 -2.1671195 9.7333336
2.3255544 -2.4958727 -1.9740185 9.833334
2.3723576 -2.5290904 -1.7809972 24.39423
2.445977 -2.4962378 -1.6323335 56
2.5968359 -2.3866072 0.79996765 10.5
2.5929832 -2.3635764 0.93102473 13.5
2.051832 -2.2644784 -2.7438929 13.6
2.1288009 -2.3329084 -2.5567369 10.016666
2.1751471 -2.3727136 -2.4265823 10.2
2.5725009 -2.3605735 0.81812632 12
2.5251472 -2.2925386 0.96741688 11
1.8818814 -2.1067266 -3.0954306 9.568182
1.9619195 -2.1817467 -2.9335382 10.648352
2.0058198 -2.2219212 -2.8358271 11.25
2.3670597 -2.1348453 0.99885869 9.125
1.6946805 -1.925844 -3.4326885 4.75
1.7440939 -1.9728332 -3.3191159 8.2142859
1.809036 -2.0353508 -3.1939454 13.328571
2.2771027 -1.9662482 1.0217135 9.4285717
1.627578 -1.8588247 -3.5193982 3.33125
2.1437838 -1.8373958 1.0446215 9.5178566
1.4327277 -1.6567023 -3.6370394 6
1.501298 -1.7264245 -3.5508904 6.6696429
1.999456 -1.6972895 1.0710714 5.6999998
1.3242188 -1.5495473 -3.8688371 3.2
1.3654281 -1.5880647 -3.7222869 5.354167
1.8591766 -1.5604435 1.096459 4.875
1.1584965 -1.2644787 -4.158236 4.5
1.0991622 -1.312287 -4.0568728 3.5
1.1744851 -1.3880348 -3.8634927 2.8529413
1.738786 -1.3831959 1.1142331 4.9230771
1.0140109 -1.2244965 -4.2012391 4.3012819
1.0757916 -1.2866215 -4.037466 2.7916665
1.150483 -1.2545847 -3.9509003 3
1.6046351 -1.2558594 1.1345569 4.8097224
0.83426046 -1.0322539 -4.3476453 6.75
0.90386426 -1.1063367 -4.2671137 5.1166668
1.4773213 -1.0815666 1.1538897 6.5
0.73924357 -0.92947412 -4.4097652 6.166667
1.3575509 -0.92119288 1.1688854 7.2947364
0.51474088 -0.80365306 -4.5156217 7.5555553
0.6427905 -0.82449937 -4.4724665 7.625
1.2109486 -0.78516686 1.1895243 7.8147187
0.39480361 -0.67160183 -4.5658507 7.7142859
1.0813053 -0.61974859 1.2122394 9.3745041
0.25853032 -0.52074492 -4.6198907 7.9166665
0.96049994 -0.50582904 1.2291715 11.769541
0.12240704 -0.36903647 -4.6683969 7.2727275
0.18898904 -0.44288522 -4.6350555 7
0.79456067 -0.25852436 1.0967699 24.733334
0.84043545 -0.33268467 1.1932701 13.861105
-0.0096640997 -0.22078173 -4.7080517 7
0.69113719 -0.20001516 1.0894264 26.853537
0.7080096 -0.19171582 1.2414923 9.0670938
0.67609149 -0.15262347 1.3594183 0.5
-0.14830048 -0.063982047 -4.7404313 7.1111112
0.48216462 -0.094110861 0.8172254 9.666666
0.54658359 -0.13908128 0.98407239 2
0.5658105 -0.030678745 1.2956824 8.3722076
-0.26785913 0.072342053 -4.7577505 6.4285712
0.43517277 0.1153205 1.3192142 9.5204878
-0.45143571 0.2836867 -4.7654071 3.4000001
0.30685812 0.2664468 1.3392125 10.333798
-0.55446762 0.40264732 -4.7747107 7.25
-0.53988242 0.38651735 -4.7588277 6.25
0.1912225 0.41098025 1.3571761 11.378147
0.19013283 0.47620121 1.4032527 1
-0.64612079 0.51524943 -4.6560774 2.8
-0.58375114 0.57395357 -4.4465423 1.7428572
-0.60532737 0.6118542 -3.9819696 3
-0.52505815 0.62663162 -3.9645877 4
0.067447662 0.57881254 1.3851222 14.175346
0.08279226 0.61245942 1.4026027 13.75
-0.69655997 0.8309471 -4.1507154 1
-0.6862455 0.70728338 -3.9822049 3.159091
-0.77942038 0.70850968 -3.9354792 6
-0.068260759 0.72148997 1.4085839 10.418938
-0.081665888 0.74577183 1.4226226 12.268254
-0.84981096 0.89116234 -4.3525467 2.3499999
-0.82103586 0.85932785 -4.2793031 2.5
-0.83889949 0.88699442 -4.0543089 1.9166666
-0.8169595 0.8644107 -3.9209514 2.5
-0.18423593 0.83515346 1.4255177 9
-0.21340956 0.88282037 1.4434639 8.9213142
-1.084829 1.0321128 -4.6167908 3
-0.92645055 0.9826501 -4.3431768 3
-0.30703464 1.0178033 1.4611293 7.724802
-1.1841973 1.1495148 -4.6211195 3.6666667
-0.45531699 1.1794348 1.4888867 6.6558061
-1.3115615 1.3036497 -4.5700102 3.0833333
-0.55782491 1.3300085 1.5066015 6.989418
-1.4343473 1.4540238 -4.5012846 3.0833333
-0.75313264 1.4812999 1.5431802 6.8457513
-1.5015581 1.5364572 -4.4661574 2
-1.5587677 1.6080321 -4.4161091 3
-0.85247642 1.6255128 1.5638492 3.291209
-1.6787622 1.7572067 -4.3355298 2.6153846
-0.95358366 1.7716483 1.5876681 2.3964646
-1.7689182 1.8707786 -4.2580352 2.6666667
-1.8260591 1.9430262 -4.2086678 3.5
-1.1129708 1.9199055 1.6169034 3.7
-1.9132243 2.0542145 -4.1240726 2.7692308
-1.2295847 2.0852716 1.6417935 3.4000001
-2.0097408 2.1778896 -4.0290985 2.25
-2.0637493 2.2484727 -3.9593811 2.2
-1.3464375 2.2517073 1.6664056 3.875
-2.1453443 2.3552363 -3.8586771 3.2857144
-1.4427571 2.3869061 1.6824201 3.9791665
-2.2116139 2.4396336 -3.8129246 3
-2.2675962 2.517859 -3.6826611 2.9333334
-1.6220329 2.5381606 1.714493 3.6666667
-2.3481033 2.6244848 -3.5810075 3.25
-2.3893507 2.6812606 -3.5036557 2.625
-2.3740447 2.6814148 -3.2586298 1.75
-1.7414107 2.7024264 1.7359072 4.5714288
-2.4281411 2.7562907 -3.1599889 1.5
-2.4600368 2.7985001 -3.1275246 1
-1.9266477 2.841836 1.7597946 5.6333332
-2.5590937 2.9183364 -3.1663561 2.8
-2.5496418 2.9200025 -3.0056071 7.1428571
-2.5952706 2.9895091 -2.8575437 8.181818
-2.0238016 2.9719706 1.7766613 7.1750002
-2.6858847 3.1118083 -2.7534001 3.7777777
-2.7391379 3.1842515 -2.6884048 1.5
-2.1500492 3.1409729 1.7997241 9.4333334
-2.768074 3.2294736 -2.5906386 2.9166667
-2.8009634 3.2895274 -2.3907022 11.727273
-2.2723041 3.3028185 1.8158168 8.75
-2.8404884 3.3480413 -2.2987361 10
-2.8607502 3.3839037 -2.193517 8.333333
-2.8952487 3.447948 -1.9896576 11.923077
-2.9109664 3.4833791 -1.8392256 10
-2.40657 3.4491279 1.6606352 6.583333
-2.3587489 3.4036102 1.7521985 10.413637
-2.9260421 3.4977534 -1.883709 13
-2.9290764 3.5134411 -1.7715645 11.8
-2.9487379 3.5591424 -1.578876 9.8461542
-2.9654143 3.6025517 -1.3788515 14.727273
-2.9713829 3.6308656 -1.1980667 10.375
-2.6063671 3.5759714 1.6753469 8.8000002
-2.9770014 3.6482315 -1.1105871 11.75
-2.980957 3.6701682 -0.96886116 12
-2.9785049 3.6923244 -0.76214039 34.909092
-2.9695733 3.7056153 -0.56625366 59.916668
-2.9557564 3.7139473 -0.36595821 56.75
-2.9365895 3.7159925 -0.16711617 64.900002
-2.9180946 3.7182982 0.022338891 59.099998
-2.8951423 3.7160742 0.21507809 55.666668
-2.8635323 3.7054269 0.42093235 94.166664
-2.8312848 3.6931558 0.61597306 90.181816
-2.8080318 3.6942656 0.81915128 43.81818
-2.7822824 3.6945169 1.0322162 53.272728
-2.7538896 3.6887453 1.2234738 26.583334
-2.7192748 3.6753695 1.412443 12.909091
-2.6869483 3.6630752 1.5865486 13.4
2.5882406 -2.8317547 0.20771343 19
2.2456796 -2.684207 -1.6936532 66.5
2.2695227 -2.6949282 -1.5582272 65.714287
2.3619654 -2.6734223 -1.3500918 56.300003
2.3949518 -2.6898029 -1.1756461 54.666664
2.4272859 -2.7030547 -0.98131001 55.666664
2.4580266 -2.7134669 -0.78166914 50.65625
2.4901884 -2.7248328 -0.58214128 68.204163
2.5224969 -2.7363431 -0.38704652 54.15625
2.5547056 -2.7466209 -0.1870414 54.434067
2.588474 -2.7582755 0.010999333 50.316963
2.6165144 -2.7674448 0.17763935 31.946156
2.5968306 -2.8154819 0.40769026 14.2
2.6192436 -2.7078011 0.66573411 10.694445
2.057662 -2.5463381 -2.3168938 10.75
2.1134894 -2.5893214 -2.1474082 10.071428
2.1700702 -2.6306891 -1.9582533 11.2
2.2140713 -2.6597772 -1.7858201 30.272728
2.5372007 -2.611696 0.71859479 9
2.4472761 -2.5028744 0.81514364 11.722222
2.4550881 -2.4926977 0.95017844 13
1.8483709 -2.370316 -2.8323188 7
1.8936276 -2.4079499 -2.7154284 10.692307
1.9690773 -2.4722564 -2.5366063 9.6000004
2.0181742 -2.5136845 -2.4176412 10
2.4328918 -2.4835048 0.83958387 13
2.3796403 -2.4096906 0.96595281 14.3125
1.7234175 -2.2581186 -3.0832896 18.666666
1.8011686 -2.327246 -2.9202881 11.785714
1.8490834 -2.3654246 -2.7803006 9
2.2508466 -2.2678883 0.99614203 13.011905
1.5258511 -2.0721879 -3.4099569 6
1.5803019 -2.1203806 -3.2905271 14.125
1.6668139 -2.2055495 -3.1823285 10.75
2.1180563 -2.121726 1.0248791 10.875
1.4189974 -1.9717093 -3.5916169 6
1.4639074 -2.0120094 -3.4968493 5.1999998
1.9866554 -1.9773697 1.0509325 12.222221
1.2656038 -1.8027048 -3.6217546 6.2222223
1.3342429 -1.8712243 -3.540638 7.25
1.8457195 -1.823368 1.0729704 7.6409092
1.1572832 -1.7070066 -3.8704529 5.5
1.1947004 -1.7311285 -3.698905 6.25
1.7070677 -1.6712618 1.0978545 5.833333
0.92034531 -1.4643667 -4.1044745 6
1.0105784 -1.5391196 -3.8447769 5.1764708
1.5713447 -1.5219909 1.1212047 6.3076925
0.8332746 -1.3745364 -4.1865149 6.9166665
0.90829706 -1.4432195 -4.0317292 5.1428571
0.93279147 -1.4593128 -3.9204726 4
1.4561175 -1.3360242 1.146083 6.1904769
0.65504771 -1.1881812 -4.3339024 9.1428576
0.72970933 -1.2645599 -4.2552085 6.8888888
1.3366377 -1.2076349 1.1618711 7.1372552
0.55193311 -1.0794656 -4.4127436 9.2857141
1.2023677 -1.0632235 1.1825327 7.9317169
0.39379895 -0.90986055 -4.5083594 9.181818
0.46530914 -0.98656386 -4.464664 10.666667
1.0659527 -0.91597223 1.2039304 8.2227402
0.26839328 -0.77343422 -4.5679026 8.9230766
0.93104053 -0.76939112 1.2242782 10.144349
0.082555383 -0.5703063 -4.6504269 9.5
0.1467329 -0.64007175 -4.6177073 9.3000002
0.81434697 -0.59896338 1.2503299 10.728764
0.0017538697 -0.47954068 -4.6639414 9.3076925
0.68819278 -0.46103445 1.2707267 9.2877579
-0.13913845 -0.32251489 -4.7014222 9.4615383
0.54764354 -0.23225184 1.0613681 4
0.55815703 -0.31910881 1.2862707 9.078166
-0.27577224 -0.16963521 -4.7342629 9.416667
0.4021267 -0.18615271 0.9183647 1.3809524
0.47415021 -0.19832274 1.0256405 0
0.42106047 -0.16204032 1.3208189 9.5563297
-0.39179751 -0.0391289 -4.7572327 9.166667
0.29052678 -0.012556888 1.341522 11.073557
-0.58033478 0.17579788 -4.7702608 7.6666665
-0.57316297 0.16888613 -4.7574368 8
0.16122136 0.13862473 1.3620569 12.49637
-0.66791481 0.27713263 -4.7633519 8.875
-0.71057993 0.32755238 -4.7499881 11
-0.0085765095 0.24209711 0.97209984 0.66666669
-0.017380822 0.2448716 1.0660949 1
0.043180935 0.27892202 1.3789644 13.959295
0.12973443 0.29782316 1.3946666 13
-0.77984822 0.42418292 -4.5859261 5.6666665
-0.74070448 0.39732939 -4.4095945 4.1999998
-0.75989896 0.46502131 -3.9685254 5.3333335
-0.091299735 0.44294944 1.4029014 26.784801
-0.084658138 0.443369 1.44222 15.75
-0.84067553 0.55809313 -3.9692261 5
-0.21617791 0.59746546 1.4240662 10.700933
-0.21998629 0.60497153 1.4370369 11.606697
-1.0273483 0.73360544 -4.3538871 5
-1.013294 0.72510993 -4.2795153 4.3333335
-0.97097164 0.70527726 -4.0003591 6
-0.34400094 0.71075052 1.4431039 8.751462
-0.33448967 0.74745393 1.4542525 8.8770561
-1.2097788 0.91674101 -4.6196437 6
-1.1014289 0.8223381 -4.3237624 3
-0.48793563 0.79288548 1.4605052 9
-0.48829296 0.89350969 1.4804935 9.141304
-1.3177556 1.0427933 -4.609015 7.2222223
-0.61032546 0.93769199 1.4733423 7
-0.60981512 1.0458071 1.5010272 7.5225186
-1.4428134 1.1929637 -4.558516 7
-0.73352838 1.2017349 1.5222411 7.8764133
-1.5670979 1.3440602 -4.4928412 7.5833335
-0.85501927 1.3551598 1.5440735 7.8958335
-1.6451188 1.4390934 -4.4509287 7.3333335
-1.7052083 1.5133042 -4.4097524 7.6666665
-1.0128332 1.4884281 1.5696242 4.6923075
-1.8110607 1.6439719 -4.3390713 7
-1.1382303 1.6446959 1.5974151 3.1048951
-1.915995 1.7757835 -4.2493777 7.0999999
-1.9742668 1.8504978 -4.1862421 7
-1.2604586 1.7961551 1.6173847 5.613636
-2.0501194 1.9462132 -4.1194224 7.0769229
-1.3837355 1.9499476 1.6429986 4.8888888
-2.1452608 2.0680385 -4.0205088 6.75
-2.2059643 2.1467397 -3.9493959 6.3333335
-1.5092227 2.1068602 1.6695291 5.1597223
-2.2844923 2.2487066 -3.8571532 6
-1.6344482 2.2626908 1.6943569 5.6428576
-2.347611 2.3311834 -3.7790573 6
-2.403455 2.4069843 -3.6852946 6.3333335
-1.7588184 2.4178114 1.7173121 4.9285712
-2.4811523 2.5100286 -3.5777373 6
-2.5221169 2.5692904 -3.4775984 5.7142859
-2.5050554 2.5738933 -3.2587383 5.909091
-1.8892393 2.5798404 1.7389424 5
-2.5725746 2.6645789 -3.1582582 5.8333335
-2.586453 2.6851451 -3.1207736 5.5
-1.9995939 2.7165225 1.7571257 5.0333333
-2.6954224 2.8092771 -3.1556587 5.1999998
-2.6849771 2.8159573 -2.9898949 7.5
-2.7311821 2.8864543 -2.8498003 8
-2.197736 2.8516331 1.7816403 8
-2.81703 2.9992828 -2.7486041 5.8000002
-2.8742177 3.0750816 -2.6763592 9
-2.3033369 2.9787714 1.7986004 9.5
-2.8790715 3.0778766 -2.7014186 3
-2.9053664 3.1232135 -2.5789526 13.083333
-2.9319153 3.1765847 -2.3917043 14.4
-2.4368267 3.1386209 1.8138038 9.1999998
-2.9712002 3.2336297 -2.3015602 11.333333
-2.9986513 3.2812126 -2.1743679 11.923077
-3.031764 3.3450453 -1.9686021 12.090909
-3.0417697 3.3699996 -1.8599943 11
-2.5539119 3.2574134 1.6768705 10.5
-2.5388846 3.2541959 1.7788342 18.571428
-3.0580781 3.3986642 -1.7828043 11.625
-3.0818002 3.4525254 -1.5718542 12.636364
-3.1019223 3.502418 -1.3606169 17.25
-3.1048653 3.5219569 -1.2315288 14
-2.7270162 3.457334 1.6435221 8
-3.1107767 3.5417588 -1.12922 14.875
-3.1121266 3.5658395 -0.9506579 14.272727
-3.1079781 3.5865381 -0.74891639 44.363636
-3.0955796 3.597254 -0.55056924 69.416664
-3.0832701 3.6083736 -0.35164535 67.272728
-3.0642984 3.6112676 -0.1569535 68.63636
-3.0412331 3.6106133 0.045940731 68.333336
-3.0160794 3.6068907 0.24244341 88.916664
-2.9839945 3.5964541 0.44832999 167
-2.9511499 3.5829425 0.63629043 148.39999
-2.928055 3.5829394 0.83693528 80.272728
-2.9094894 3.5879493 1.0333599 54.727272
-2.8799198 3.5825713 1.247092 30.636364
-2.8492355 3.5719235 1.4307764 21.90909
-2.8232191 3.5601261 1.5658109 18
2.1392541 -2.7659879 -1.6698754 53.5
2.1679416 -2.7819641 -1.5444947 68.769234
2.1555195 -2.8415473 -1.3402573 63.845451
2.1916354 -2.8575385 -1.1548245 60.908333
2.2268586 -2.8709564 -0.95683998 55.766666
2.2595704 -2.8819118 -0.75932711 52.994049
2.2863054 -2.8863447 -0.56224567 111.1
2.3209803 -2.9001467 -0.35950679 81.1875
2.3552458 -2.9147546 -0.16153371 58.266666
2.3883529 -2.9290977 0.032775331 49.733334
2.417733 -2.9413128 0.21152303 17.5
2.4956405 -2.9023616 0.42623231 15
2.4238636 -2.8878355 0.68065649 10.357143
1.9477013 -2.6340773 -2.3168285 19.692308
2.0115545 -2.6816883 -2.1284335 11
2.0710154 -2.7245507 -1.9411201 12.066667
2.1160192 -2.7516615 -1.7611135 43
2.1368382 -2.7583728 -1.6366352 69.5
2.3183022 -2.7518864 0.73508763 8.583334
2.2546337 -2.6599188 0.85458583 11.916666
2.3056202 -2.611239 0.94744277 16
1.741334 -2.4679744 -2.8322854 10.333333
1.7903368 -2.5081 -2.7156818 14.866667
1.8704702 -2.5737953 -2.5240688 14.933333
1.9119928 -2.6062713 -2.4134502 10
2.18277 -2.6813767 0.75982678 11
2.1695502 -2.6497321 0.88674206 12.235294
2.1632965 -2.5328135 0.972507 16.571428
1.6096781 -2.3518713 -3.08689 15.230769
1.6898311 -2.4214551 -2.9249961 9.7692308
2.0694289 -2.4156506 1.0005233 13.5625
1.4204348 -2.1796556 -3.411418 5.3333335
1.4850031 -2.2331085 -3.26647 15.6
1.5527875 -2.2984192 -3.1741173 15
1.95043 -2.2661796 1.0342526 12.993055
1.299145 -2.0632637 -3.5766435 4.3333335
1.3462582 -2.1073613 -3.5053809 4.5
1.8189788 -2.1025357 1.0591661 11.166666
1.1645938 -1.9133333 -3.621911 6.8461537
1.2325844 -1.9792852 -3.5352669 7.75
1.6949892 -1.9480159 1.0843338 6.8000002
1.0376234 -1.8018957 -3.8581471 5.5
1.0864069 -1.8364846 -3.7143254 9.5
1.5809494 -1.8064005 1.1073965 6.3383837
0.80718881 -1.5770288 -4.1344204 5
0.82394606 -1.5674133 -3.946974 5
0.90035611 -1.6424121 -3.8584015 4.6666665
1.4454509 -1.6384814 1.1290481 5.8846154
0.72251529 -1.4867829 -4.1851792 7
0.80280733 -1.543124 -3.9484768 4.6666665
1.2785989 -1.4951231 1.1522779 6.0444446
0.5441193 -1.3038911 -4.3366828 10.714286
0.61360729 -1.3707741 -4.2500596 6.625
1.1674107 -1.3553393 1.1683269 6.875
0.43345127 -1.1872731 -4.4086828 10.8
1.0452808 -1.2008882 1.1891969 8.0400324
0.27891418 -1.0234118 -4.5009623 10.181818
0.34553671 -1.0930188 -4.4548683 11
0.91985655 -1.0431533 1.2102648 7.7837067
0.14773288 -0.88316989 -4.5702224 8.9285717
0.79110944 -0.88245869 1.2305065 9.2695656
-0.023506155 -0.69758981 -4.6424069 7
0.04144416 -0.76822627 -4.6169224 7
0.64688921 -0.74772453 1.255322 10.906976
-0.12646823 -0.58395344 -4.6713939 7.1538463
0.52613837 -0.59702247 1.2783195 9.6357145
-0.26353011 -0.43339473 -4.7132773 7.25
0.40221354 -0.44436431 1.3033278 8.5790176
-0.39562568 -0.28613958 -4.7383962 7.4166665
0.27440551 -0.28999791 1.3248445 9.6483746
-0.51195878 -0.15558387 -4.7537842 7.1111112
0.14645946 -0.1384566 1.3455533 10.385105
-0.70515543 0.062201563 -4.7707005 7.25
-0.68779665 0.045597311 -4.7502484 7
0.01544855 0.01343096 1.3677198 12.520538
-0.795771 0.16688573 -4.7612243 7.6666665
-0.11560994 0.1622431 1.3859093 15.604355
-0.87478554 0.25677395 -4.7614961 8
-0.91706532 0.33088666 -4.5934563 4.5999999
-0.87515259 0.31229302 -4.4059424 5
-0.87497854 0.37624288 -3.9915104 3.5
-0.24699046 0.30868191 1.4045388 27.091282
-1.0352337 0.52940476 -4.1771908 2
-0.96003467 0.47425735 -3.9818654 3.1818182
-0.38057816 0.45526394 1.4310764 10.663603
-0.3537263 0.54996264 1.453704 7
-1.1527209 0.63641155 -4.3468523 5.25
-1.1234682 0.63851643 -4.1180062 3
-1.0727077 0.6011126 -3.9874687 5.75
-0.50166661 0.58691877 1.4527036 8.4952841
-0.46901435 0.63748461 1.4657516 7.7333336
-1.3575809 0.82162267 -4.6506925 7
-1.2404841 0.73312151 -4.364274 2
-0.61289835 0.75023693 1.4729121 7.7509804
-0.65457028 0.79582274 1.4888906 7.5964913
-1.444048 0.92424113 -4.6192284 6.8333335
-0.77593297 0.87821627 1.4938736 7.083333
-0.76608652 0.91705799 1.5043315 7.4303031
-1.5707034 1.0763847 -4.5600576 6.5833335
-0.89806026 1.0598129 1.5261331 7.5321064
-1.6966227 1.2281513 -4.4964256 6.8333335
-1.0317237 1.2034169 1.5504938 7.3883362
-1.7839673 1.3345673 -4.4439402 6.5999999
-1.8420937 1.4070101 -4.397831 6.7142859
-1.1357491 1.3756055 1.5731612 5.0222225
-1.9388332 1.5254627 -4.3342204 6.25
-1.2777145 1.5324315 1.6047974 1.9
-2.0577424 1.6726314 -4.244339 5.8333335
-2.1100109 1.7428126 -4.1678123 5
-1.4036863 1.6711663 1.6254451 3.3500001
-2.1843822 1.8325688 -4.1255274 6.3076925
-1.5354702 1.8158933 1.6479087 5.1000004
-2.2862031 1.9637355 -4.0113344 6.8000002
-2.3451025 2.0389175 -3.9493141 6.6666665
-1.6747752 1.9689839 1.6758335 4.1031742
-2.4198525 2.1355014 -3.8619015 6.2857141
-1.8086023 2.1154308 1.7000557 4.6696429
-2.492346 2.2297764 -3.7724183 7
-2.5430555 2.2995367 -3.6832802 6.3636365
-1.9450557 2.264878 1.7254026 6.2142859
-2.6257157 2.4083624 -3.5703657 6.3333335
-2.6711476 2.4758682 -3.4550166 5.8571429
-2.6491563 2.4726462 -3.3085122 4.25
-2.0749531 2.4063663 1.7456305 6.75
-2.7030139 2.5308585 -3.3210163 5
-2.7257452 2.5733321 -3.2024393 4.909091
-2.1949956 2.537744 1.7646199 6.416667
-2.8405199 2.7061591 -3.1675408 5.4000001
-2.8214138 2.7111661 -2.9844542 6.818182
-2.8659155 2.7794981 -2.8525429 7
-2.279145 2.7319958 1.7819521 9.6000004
-2.9513497 2.8891456 -2.7489874 10.75
-3.007972 2.9625063 -2.6750081 20
-2.4221275 2.8925631 1.8002626 10
-3.0385458 3.0116363 -2.5671132 21.307692
-3.0721388 3.0742247 -2.3864784 21.777779
-2.5752711 3.0641201 1.8165801 10
-3.1101844 3.1292295 -2.2945657 29.25
-3.1382644 3.1792653 -2.1581862 26.692308
-3.1703854 3.2407219 -1.9705657 11.8
-2.7034771 3.1894751 1.6745111 9.8000002
-2.6639292 3.1561227 1.7635692 15.75
-3.1862295 3.2716429 -1.8730484 10
-3.1997859 3.3025541 -1.7564877 10.166667
-3.2192142 3.3511999 -1.5564067 11.416667
-3.2336202 3.3934875 -1.3606372 16.09091
-3.2331779 3.4086099 -1.2440042 11
-2.8611264 3.3658521 1.6904322 12
-3.2475054 3.4169598 -1.3000771 12
-3.2436733 3.4344528 -1.1370001 10.5
-3.243643 3.4601607 -0.94251537 11.181818
-3.2390692 3.4805398 -0.748797 35.916668
-3.2246218 3.4909577 -0.54622966 62.333332
-3.2081785 3.4986808 -0.34575683 63.75
-3.1882613 3.5021744 -0.14663917 61.333332
-3.1672761 3.5040922 0.05105957 54.333332
-3.1396136 3.4992683 0.25540972 63.076923
-3.1113029 3.4932914 0.4580197 98.583336
-3.0832446 3.4864502 0.65318 110
-3.0572221 3.4816759 0.84855109 67.166664
-3.0296149 3.4751108 1.0453095 49.416668
-3.0082145 3.4756393 1.2457325 29.833334
-2.9761279 3.4639804 1.4448075 19.75
-2.9437325 3.448772 1.6185018 18.777779
2.4272866 -3.0045149 0.65718764 12
1.9872955 -2.9018044 -1.6627573 71
2.0112381 -2.9066956 -1.5216681 57.980518
2.0427029 -2.9210608 -1.3776861 60.416664
2.038254 -2.9823804 -1.139974 50.200001
2.0758255 -2.9932256 -0.92242879 51.909092
2.1044488 -3.0001376 -0.74161583 58.133335
2.1349075 -3.008884 -0.54873449 86.533333
2.1679466 -3.0207412 -0.34367293 69.625
2.2029355 -3.0381126 -0.1461271 54.866665
2.2334118 -3.0513856 0.047949601 41.333332
2.3221934 -3.0307031 0.25308335 17.122223
2.3405001 -3.0305982 0.44050196 13.153847
2.3486972 -3.0163736 0.64038759 11.923077
1.7932426 -2.7742445 -2.2868731 10.241667
1.8482465 -2.8109128 -2.1184208 10.664286
1.908361 -2.8504846 -1.9264983 11.955357
1.9590422 -2.878336 -1.7311631 43.008331
1.9852568 -2.8900149 -1.6136837 63.666668
2.1427689 -2.8378115 0.7456724 9.5
2.109179 -2.7762439 0.88850522 11
1.6196736 -2.6385458 -2.6994715 11.142857
1.7043386 -2.7059245 -2.5076129 10.466667
1.7553624 -2.7450156 -2.3812675 10
2.0692728 -2.7224896 0.88425815 19
1.4400717 -2.4912934 -3.0691898 9.9935894
1.5282993 -2.5648851 -2.8957489 11.747917
1.6308161 -2.5557504 -2.7957032 17
1.9761671 -2.5857151 0.98082083 13
1.9227571 -2.5106859 1.0059191 14.571428
1.2480319 -2.3217032 -3.3868003 5
1.315464 -2.376061 -3.2538292 10.258333
1.3870412 -2.444649 -3.159229 9.125
1.7827145 -2.4111936 1.0363907 10.603174
1.1088088 -2.1906493 -3.5704122 5.2857141
1.181018 -2.257051 -3.4695504 4.6181321
1.2509236 -2.3027539 -3.2864494 19.5
1.6654212 -2.2445848 1.0608175 11.905556
0.89875251 -2.0991087 -3.7630012 5.25
1.0116791 -2.0889125 -3.6431482 26.799999
1.1155189 -2.0695033 -3.52508 29.6
1.5485414 -2.0792849 1.0859618 6.5111113
0.78259909 -1.8776189 -3.9463911 4.75
0.85210615 -1.9426671 -3.8629141 3.9047618
0.96820986 -1.9279038 -3.7033336 37.42857
1.4252234 -1.905727 1.1116464 6.1181817
0.67675161 -1.7570876 -3.9810083 3.9272728
0.73948675 -1.8101243 -3.8836746 3.55
1.27836 -1.7743083 1.1295272 5.59127
0.54804415 -1.6419082 -4.1521897 5.5666666
0.62130642 -1.6975541 -4.0140691 3
1.1743697 -1.6240822 1.1476063 5.9107146
0.37006944 -1.4657627 -4.3093276 8.5277777
0.44381258 -1.531531 -4.2146788 4.9428568
0.98097521 -1.4770428 1.1701666 6.2352943
0.27454183 -1.3664016 -4.3709412 8.8809528
0.8855738 -1.3358542 1.1857595 7.7228065
0.16754057 -1.1406751 -4.485981 8
0.77115124 -1.1671505 1.208145 7.7430835
0.030086352 -0.99395519 -4.551003 7.0769229
0.63375628 -1.0214922 1.2266202 9.5146523
-0.15822312 -0.79090124 -4.6246552 7.5
-0.087673061 -0.86723179 -4.5990496 6.6666665
0.53382403 -0.87677407 1.2472571 10.44375
-0.25062427 -0.68987727 -4.6515903 6.8461537
0.36228508 -0.72898757 1.270054 9.9223709
-0.38850203 -0.5402441 -4.6943994 7.4166665
0.24789642 -0.57285136 1.2956558 8.8545341
-0.52164018 -0.39421001 -4.7251301 6.5833335
0.12683363 -0.41545996 1.3169901 9.3948965
-0.6384244 -0.26423976 -4.740603 7.8888888
0.00078427402 -0.26124129 1.3383574 10.290795
-0.82880163 -0.05031072 -4.7507234 7.5999999
-0.1284671 -0.11209767 1.3562869 12.72093
-0.92419386 0.057256442 -4.7514305 6.0833335
-0.26359618 0.034496535 1.3750818 15.348062
-1.0007021 0.14659786 -4.7362089 5.5
-1.0449133 0.22520371 -4.5959139 2.4000001
-1.0521231 0.1571489 -4.3849487 3.625
-1.0339419 0.23548067 -3.9583685 4.416667
-0.40160495 0.17567973 1.3938321 21.895283
-1.2259527 0.29576078 -4.1276412 5
-1.1276252 0.33708832 -3.9686942 3.162879
-0.53112924 0.30139023 1.4172778 10.870226
-1.3363712 0.48275208 -4.3376656 3.625
-1.2360359 0.54005468 -4.0998058 1
-1.2482454 0.46614155 -3.9829895 3.8333335
-0.65388155 0.49400932 1.4519123 7.8498478
-1.4853244 0.70923698 -4.6290393 3.5
-1.4180543 0.57293934 -4.3386149 3
-0.77780575 0.61067927 1.4700323 6.7840528
-0.77196437 0.73484087 1.499808 7
-1.5730199 0.81191301 -4.6004934 3.4166667
-0.91871965 0.78519815 1.4996874 6.5598845
-0.85299897 0.81466126 1.5090318 6.1428571
-1.7035137 0.96559948 -4.5509162 4.25
-1.0748824 0.88107449 1.5169523 6.9583335
-1.0436811 0.94931448 1.533143 6.9736843
-1.829965 1.1170436 -4.4869075 4
-1.1975757 1.0412149 1.5402045 6.6666665
-1.1895047 1.0861127 1.5545646 6.489583
-1.9299879 1.2371352 -4.4324245 3.2857144
-1.9905291 1.3112389 -4.3911109 4.1999998
-1.3001828 1.1341332 1.5539905 6
-1.3016958 1.2470274 1.5751063 3.6031749
-2.0726373 1.4136999 -4.323431 3.8333333
-1.4265467 1.3664732 1.5941482 2.4626262
-2.1913142 1.5600519 -4.2317395 3.5
-1.5486021 1.5468405 1.6266311 3.3181818
-2.2591016 1.6421483 -4.1857891 2
-2.3148165 1.7173052 -4.1063809 3.0769231
-1.6928762 1.687027 1.6513165 4.3388891
-2.4248583 1.8568915 -3.9937115 2.7272727
-2.4866028 1.9340063 -3.9354837 2
-1.840826 1.8301874 1.676935 3.9722223
-2.5461676 2.0139272 -3.8480132 3.9230769
-1.9656231 1.950814 1.6990955 4.5
-2.6242671 2.1143234 -3.7555737 4
-2.6774054 2.1885803 -3.6584475 3.2
-2.0694346 2.133728 1.7222786 4.7142859
-2.7485619 2.2814136 -3.5630972 3.7142856
-2.7962983 2.3538661 -3.4406385 2.4000001
-2.79128 2.3757896 -3.2863705 1.5
-2.2220902 2.2849174 1.7449127 5.5714288
-2.8726354 2.452441 -3.3399396 2
-2.8691869 2.4693472 -3.2221553 1.8888888
-2.3320601 2.4882805 1.76724 6.3000002
-2.9736722 2.5934565 -3.141758 2
-3.0197153 2.6631429 -3.0176001 5.7142859
-2.4479344 2.6062438 1.7866794 8.1000004
-3.0620456 2.7241435 -2.9198608 3
-3.1142457 2.8035662 -2.7719948 9.0769234
-2.5974503 2.7588317 1.8118976 9
-3.1520152 2.8600812 -2.6693277 2
-3.1698847 2.8964872 -2.5606434 4.1666665
-3.1957059 2.9519958 -2.3836126 15.666667
-2.7444634 2.9080403 1.8271331 9.6000004
-3.2383776 3.0120628 -2.2856624 9.1999998
-3.2648237 3.0610955 -2.1486325 10.833333
-3.2961721 3.1240556 -1.951979 16.166666
-3.3011844 3.1516032 -1.8050072 8
-2.8717632 3.0252967 1.6915708 9.4285717
-2.8359587 2.9969597 1.7870359 14.690475
-3.3175321 3.16187 -1.8493049 13
-3.3244333 3.1868355 -1.7307153 8.545455
-3.3438864 3.2354438 -1.5383836 9.666667
-3.356601 3.2765412 -1.3456475 11.454545
-3.3631148 3.301147 -1.2203435 9
-2.9899588 3.2611575 1.6908857 8.5
-3.3713956 3.3056512 -1.2489284 9
-3.3706825 3.3241413 -1.1122462 9.363636
-3.3718319 3.3520982 -0.91858 10.75
-3.3616924 3.3679667 -0.72393316 39.272728
-3.3464506 3.3779099 -0.52983016 59.75
-3.3319161 3.3887126 -0.330107 62.083332
-3.3120086 3.3932507 -0.13119118 61.75
-3.2894442 3.3942785 0.066537231 50.416668
-3.2605977 3.3880401 0.26268131 57.583332
-3.233053 3.3832343 0.46503675 63.23077
-3.2045982 3.376935 0.66826093 63
-3.1770158 3.3699546 0.86311364 59.416668
-3.1537418 3.3671207 1.0609165 55.666668
-3.1288877 3.3621554 1.2598611 21.916666
-3.0979304 3.3502853 1.4590335 12.083333
-3.0738068 3.3418908 1.6273137 13.375
1.8584116 -3.033716 -1.4825797 55.625
1.8410918 -3.084904 -1.3002465 53.799999
1.8795716 -3.0993483 -1.116351 47.695236
1.9157139 -3.1094077 -0.91819936 57.53125
1.9489413 -3.1185324 -0.72390473 56.833336
1.979867 -3.1266844 -0.52882308 63.5
2.0132723 -3.1401451 -0.32745656 52.75
2.0436909 -3.1526232 -0.13035417 48.900002
2.0747218 -3.1694274 0.062548816 50.296703
2.1049938 -3.1871374 0.25793752 15.793269
2.1876252 -3.1634502 0.45649558 11.533334
2.1069303 -3.1346133 0.69202882 9.8000002
1.633858 -2.9128265 -2.2705662 8.333333
1.6858699 -2.9436951 -2.1106522 8.0666666
1.7466877 -2.9789467 -1.9131992 8.5333338
1.8023204 -3.0084038 -1.7130246 43.214287
1.8372961 -3.0209227 -1.5572968 60
1.7642022 -3.1074331 -1.3673805 55
2.0019293 -2.9703462 0.74568552 7.2833333
1.4667567 -2.7875957 -2.6596894 9.5
1.5466266 -2.8503716 -2.488472 8.7333336
1.5986373 -2.8876095 -2.3600426 8.8000002
1.9399571 -2.8734353 0.77142346 11.416666
1.9233387 -2.8378921 0.88004291 16.351103
1.2744617 -2.6374426 -3.0488145 10.076923
1.3612366 -2.7057765 -2.8794277 10.214286
1.4140838 -2.7447119 -2.7639849 11
1.8268809 -2.6824434 0.9799186 19.049999
1.7689843 -2.5922875 1.0126199 11.6
1.0779707 -2.4651937 -3.3533449 4.6666665
1.1548568 -2.5309691 -3.231555 8.625
1.2238922 -2.5961251 -3.1398554 10
1.591211 -2.5212088 1.0381451 11.1875
0.9363969 -2.3460667 -3.5737793 3.2
1.0209203 -2.4167926 -3.442183 3.1666667
1.0796452 -2.447824 -3.2893963 13
1.5029209 -2.3785298 1.0562516 11.8125
0.78352326 -2.2061749 -3.7638338 1.1
0.86144376 -2.2775941 -3.6688008 2.25
1.3941485 -2.2027991 1.0811642 6.1166668
0.61564273 -2.0401757 -3.9215963 1.3333334
0.68448973 -2.1089978 -3.8604915 1.1666666
1.2469785 -2.0523863 1.1058598 5.9090905
0.44515172 -1.883008 -4.1059203 4
0.51529348 -1.9253184 -3.9616439 1.5833334
0.56826353 -1.9598793 -3.8595839 4
1.1203068 -1.928322 1.1230197 5.9532967
0.35991788 -1.790408 -4.150125 4.6666665
0.44476774 -1.8357465 -3.9606512 1
0.97352487 -1.7587292 1.1437057 6.0888886
0.19171108 -1.6295264 -4.2984948 6.6363635
0.26311308 -1.6780199 -4.1757379 3
0.88229859 -1.6030458 1.1597645 7.040441
-0.0045153447 -1.4365581 -4.4435549 8
