# .PCD v0.7 - Point Cloud Data file format
VERSION 0.7
FIELDS x y z intensity
SIZE 4 4 4 4
TYPE F F F F
COUNT 1 1 1 1
WIDTH 61
HEIGHT 1
VIEWPOINT 0 0 0 1 0 0 0
POINTS 61
DATA ascii
-0.74687779 0.36745578 -4.7678876 9
-0.34813017 0.68026274 -4.7752433 9
-0.95258099 1.1378455 -4.6698928 6
-0.81812674 1.2430859 -4.6580582 6
-0.95437187 0.15572485 -4.4399171 1
-0.82693541 0.25624007 -4.4139013 2
-0.47337693 0.56628007 -4.4248662 3
-0.2238072 0.75911045 -4.4461126 3
-1.6845731 -0.47729272 -4.3336687 1
-1.5642005 -0.37016472 -4.3654737 1
-1.3118299 -0.15597014 -4.3790703 5
-1.1521335 -0.074868403 -4.3328099 2
-1.2614659 0.053467583 -4.3046532 4
-1.0741484 0.063228622 -4.3818207 6
-1.6503829 0.22255532 -4.3287125 6
-0.10079087 0.84995288 -4.391366 6
0.019846646 0.95121938 -4.3900857 2
0.14146775 1.0482796 -4.3697958 6
-0.29859442 1.338328 -4.3195767 5
-2.0209255 -0.090990223 -4.2423558 1
0.77965128 -1.7678448 -4.0241976 2
1.3786807 -1.2714987 -4.0310607 6
1.7116513 -0.94619817 -4.0060859 3
-0.88849717 0.83156848 -4.0365486 2
-1.6140392 -0.33790356 -3.9192092 1
-1.3994639 -0.14332852 -3.9849765 1
-1.2776091 -0.034598231 -3.9377813 3
-1.0578206 0.16259508 -3.9246919 5
-1.7986978 0.2922242 -3.9234641 4
-0.95023483 0.25516388 -3.934855 2
-0.84707791 0.34857011 -3.965584 5
-0.73357022 0.43522865 -3.9632521 4
-1.212123 0.54994142 -3.9201944 1
-0.62686354 0.52747494 -3.9785242 2
-1.1009806 0.64256078 -3.9262381 1
-0.5187133 0.61913604 -3.9870081 2
-0.40885314 0.70875239 -3.9787378 1
-0.29911411 0.79868275 -3.9755492 2
-0.18731956 0.88084656 -3.9363012 5
-0.078226469 0.97323924 -3.9408488 4
-0.53701985 1.084823 -3.9004908 3
-0.34779981 1.0807816 -3.9313371 6
0.032296609 1.0554905 -3.9057667 5
-0.43634459 1.1907575 -3.9136555 4
-1.7127507 -0.0047495225 -3.8983369 3
-0.32265273 1.2761146 -3.8935237 3
-0.19961992 1.3470803 -3.8672378 5
-3.3889253 1.9599122 -3.3028493 3
-2.7392714 2.5679176 -3.3440959 4
-1.7709001 3.3201914 -3.3378351 4
-3.0150893 2.1125274 -3.2668874 1
-2.7561936 2.3402491 -3.2773514 2
3.0153768 -2.0708714 -1.8428816 0
0.44911689 -0.10524202 0.7727989 2
0.34417874 -0.20213918 0.88407052 1
-0.0107682 0.23723875 0.94237638 0.5
0.5238741 -0.24172926 1.0476351 9
0.65471065 -0.20535201 1.2623285 4
-0.012973652 0.30390218 1.3706535 7
-3.3560324 2.5080702 1.6639417 13
-2.566973 3.267839 1.6416171 11
